# .PCD v0.7 - Point Cloud Data file format
VERSION 0.7
FIELDS x y z rgba
SIZE 4 4 4 4
TYPE F F F U
COUNT 1 1 1 1
WIDTH 825
HEIGHT 1
VIEWPOINT 0 0 0 1 0 0 0
POINTS 825
DATA ascii
0.96147734 0.99982607 2.4678771 4281415478
1.2149123 0.98563403 2.4356365 4282401858
-1.3229736 1.078485 2.4825082 4280754716
-0.17214966 1.0648706 2.4894352 4280229145
0.29000875 1.0414166 2.4683499 4280360990
0.76458198 1.0202409 2.4504135 4281216557
1.074906 1.0061883 2.4280834 4282731852
-0.054229166 0.9547531 2.7228639 4280229147
0.35489845 0.98284042 2.9700196 4280229404
0.77741677 0.96715927 2.9449856 4280821799
1.1199775 0.96507531 2.8457508 4281875256
1.5920985 0.93336916 2.9311354 4281942078
-1.516322 1.1037896 2.9379277 4280688924
-1.2430341 1.1052251 2.9197721 4280688671
-0.74400008 1.0927777 2.9118674 4280623905
-0.2420674 1.0714277 2.8907084 4280294424
0.25483 1.0449145 2.859225 4280294683
0.74849242 1.0207748 2.8215327 4280756005
1.0537622 1.0082291 2.8068287 4281743415
-0.067113958 0.99659711 3.2641907 4280097817
0.41788787 0.99684769 3.4395683 4280163870
0.86560577 0.95858502 3.4902158 4280690983
1.0333977 0.93612099 3.4811199 4281480755
1.7109766 0.92744458 3.2808917 4282932585
-1.5407945 1.1060294 3.0146577 4280819998
-1.2443113 1.0831999 3.4630666 4280491549
-0.72321242 1.0689268 3.4581823 4280557341
-0.23461647 1.0466849 3.4383845 4280163355
0.26191247 1.020454 3.4037061 4280163869
0.61752701 1.0057621 3.3585732 4280361506
-0.64005542 0.9976117 3.9163229 4281083426
-0.13368927 0.99266124 3.9690225 4280098075
0.43572184 0.99577367 3.9697795 4280230176
0.94475758 0.96190184 3.9826648 4281151275
1.0210309 0.95710588 3.9787006 4281283119
1.7086233 0.90280002 3.7143188 4283329148
-1.5209786 1.0509129 3.9550104 4280557599
-1.3197068 1.0167286 3.9796658 4280491805
-0.66270185 1.0183936 3.9864812 4280426269
-0.3350251 1.0065826 3.9723639 4280097818
0.30920613 1.0116116 3.9798884 4280229919
0.58995056 1.0046537 3.9182675 4280493347
2.2610941 -1.8266239 4.3419886 4286351505
-1.0913422 0.997926 4.4137754 4280360221
-0.67114431 0.99655646 4.3659039 4280886561
-0.099221893 0.99282354 4.4084792 4280098844
0.38039321 0.99135053 4.3017511 4280230175
0.87200069 0.95567346 4.3663592 4280691240
1.0684116 0.92789376 4.4333096 4281085480
1.5769833 0.92677277 4.0276947 4281618536
-1.5279733 1.0619981 4.367281 4280557342
-1.4246422 1.0263218 4.4540024 4280426271
-0.74479109 1.0525739 4.3217783 4280820512
-0.24108785 1.0297211 4.303422 4280098075
0.17470102 1.0117888 4.2512522 4280229918
0.56383592 1.0031917 4.0734501 4280361762
-2.8344243 -2.1030314 4.9650612 4281477415
-1.2508936 -2.1327972 4.9296041 4280424472
-0.85329574 -2.1222892 4.9335403 4280359707
0.12578823 -2.0358694 4.8309293 4280426021
2.4046433 -2.075768 4.82938 4283914595
2.5110276 -2.1784379 4.9716873 4284046687
-2.732039 -1.9333655 4.7828393 4281543970
-1.2065357 -1.8672644 4.7535496 4280555802
0.19524053 -1.9999218 4.6485615 4281677885
2.2014997 -1.8301765 4.8073492 4286022790
2.5130906 -1.7223163 4.9311705 4294835966
-1.5178766 0.97356582 4.9707546 4280360735
-1.4524006 0.98866433 4.9776559 4280360735
-0.63684034 0.9788664 4.9922471 4280492320
-0.2045688 0.96099198 4.9658484 4279967005
0.2724646 0.93707538 4.9500599 4280164640
0.95503777 0.93027496 4.9673305 4280888873
1.0287282 0.91214907 4.9634314 4280888873
1.5126756 0.90117353 4.9181957 4281560472
-1.5577657 1.0206269 4.9075313 4280491807
-1.2506851 1.0243 4.8143549 4280294942
-0.78238839 1.0099282 4.7826991 4280557857
-0.44923857 1.0028536 4.7267394 4280163869
0.16997701 1.0045385 4.7382894 4280493345
-0.85679531 -2.1072371 5.0338149 4280490780
0.086467236 -2.0689597 5.272686 4280228898
2.2334538 -2.0668125 5.2639804 4286549388
-1.3258967 -1.9987433 5.0635462 4280753182
2.326 -1.8577514 5.2238812 4287206292
2.5085759 -1.625056 5.3231916 4292211443
-1.5999737 0.99044031 5.2767329 4280360735
-1.2141753 0.98796666 5.2992959 4280493097
-0.6553157 0.98963875 5.3776431 4280557855
-0.13599813 0.99370104 5.3246832 4279967004
0.25395012 0.97711742 5.2609544 4280164896
0.8449505 0.90859127 5.3944488 4280559907
1.0977741 0.92864561 5.2480121 4280691495
1.5215478 0.87005138 5.2662821 4280499542
-1.5821687 1.0399394 5.3586879 4280426271
-1.2402737 1.0439767 5.3703456 4280493354
-0.74016899 1.0211716 5.335609 4280886819
-0.32926974 1.0083654 5.2953877 4279966747
0.0077244644 1.0007558 5.2642698 4280164383
-1.6947482 0.99190825 5.8206263 4280426528
-1.1377596 0.99295384 5.8914185 4281149735
-0.74603051 0.98046082 5.8451304 4281478696
-0.12565158 0.93221706 5.9740772 4280098333
0.29143807 0.91026026 5.955194 4280164382
0.75918549 0.88455325 5.9226394 4280361760
1.0271167 0.87309647 5.8980875 4281019950
1.5237103 0.86905372 5.9122305 4284186772
-1.6292682 1.0132908 5.8893237 4280360734
-1.3153281 1.0083153 5.8587518 4280624942
-0.91587001 1.0046682 5.8504667 4283122745
-0.35996577 1.00542 5.5736828 4279901210
1.9479191 -1.8757007 6.4681435 4281281325
-1.6134918 0.92756462 6.4569216 4280558115
-1.2487992 0.93363994 6.4720092 4280952615
-0.7379809 0.91371888 6.4667788 4281083939
-0.23549204 0.8939606 6.4547324 4279966491
0.25721467 0.87023365 6.4382257 4280361504
0.75533479 0.84571171 6.4236813 4280295711
1.0855651 0.8580752 6.2281933 4280559141
1.5363063 0.86060447 6.1669335 4283660943
-1.6805365 1.0135286 6.1741242 4280426272
-1.3511531 1.0062851 6.0762782 4280954164
-3.0721266 -2.0278413 6.9778299 4281479216
2.0529804 -2.0106728 6.9030976 4281017129
1.9719744 -1.9169332 6.5938797 4280952103
2.0473254 -1.9616365 6.8714447 4280821288
-1.574103 0.89003962 6.9518051 4280294943
-1.2321885 0.89135402 6.9528942 4281544492
-0.62980723 0.86770642 6.9802775 4280163613
-0.21104407 0.85566598 6.9633894 4279900699
0.39791799 0.83180565 6.9871545 4279966749
0.79884958 0.80973727 6.9558511 4280164127
1.0132791 0.7884779 6.9586802 4280361506
1.5211215 0.81578571 6.7406063 4282077276
-1.723124 1.0078784 6.5776114 4280360737
-3.0877292 -2.0567722 7.0477099 4281282351
-0.12073281 -2.1408165 7.1380467 4280360745
1.9789244 -2.0240614 7.4395003 4280754215
2.0905225 -2.0200858 7.4540052 4281546554
1.9771386 -1.9923999 7.3648038 4280295723
2.2013443 -1.8202566 7.3593378 4280886824
-1.5729232 0.85792971 7.4077806 4280426015
-1.2304071 0.86678064 7.4367428 4284964946
-0.74454623 0.85460281 7.4266925 4281150248
-0.19236304 0.84142995 7.4852486 4279966492
0.42949656 0.80813879 7.4819951 4280163871
0.83174193 0.79114479 7.4624128 4280098335
1.0295765 0.77187723 7.4732528 4280164386
1.5584755 0.83626527 7.0198212 4282733921
-2.9069118 -2.1171281 7.6518521 4281215529
1.9853883 -2.0436707 7.58039 4280689703
2.1134584 -2.0556967 7.6134052 4280953646
1.9917724 -1.9999678 7.650712 4281348144
2.2724609 -1.9287821 7.607038 4280623654
-1.594929 0.86198634 7.9751854 4281018407
-1.2193187 0.85528749 7.9696965 4288321157
-0.73453593 0.84368283 7.9468522 4281085490
-0.23012029 0.83021903 7.9227772 4280032286
0.25503969 0.81032711 7.8863349 4282272849
0.88848984 0.76347148 7.9520087 4280229407
1.0926256 0.73782623 7.9490499 4280561980
-1.6191413 0.81037062 8.4231815 4280755492
-1.230755 0.81438118 8.4450541 4288386952
-0.74888468 0.79659885 8.444005 4282402892
-0.24406214 0.78010285 8.441329 4281021244
0.25845399 0.75882322 8.4327564 4281744959
0.74974084 0.73811126 8.4182339 4280163870
1.0277798 0.70843577 8.4514647 4280560694
-2.0148718 0.83047682 8.9227438 4280558113
-1.696612 0.80883378 8.8781252 4282202678
-1.2432542 0.80558324 8.882719 4286477920
-0.74541086 0.7877596 8.8627987 4280756266
-0.11176168 0.76036984 8.9855642 4280032285
0.27026016 0.74474967 8.9674082 4281678649
0.74981695 0.71888316 8.9445143 4280295457
1.0548936 0.69651306 8.8547792 4280626228
1.9815325 -2.0277045 9.3618374 4280820772
2.0156136 -2.0307682 9.4344101 4280886053
1.9289846 -1.9589669 9.3647957 4280821029
2.040345 -1.904359 9.4568377 4280887077
-2.0154727 0.81516582 9.321846 4280952356
-1.7249907 0.81497049 9.2698069 4282860605
-1.2602922 0.80524617 9.218152 4285293650
-0.74064153 0.78813177 9.1486826 4280229405
-0.23756388 0.76554722 9.185154 4279900698
0.19978775 0.73944992 9.2157755 4282073408
0.87950504 0.66469675 9.4406605 4280691245
1.0924799 0.68544877 9.3330479 4281020211
1.8275453 -2.065377 9.6241302 4280557859
2.0447731 -2.0743659 9.8344841 4280820773
-0.6090107 -1.8829964 9.8651962 4280688169
1.5969403 -1.9549491 9.5115757 4280952103
2.078752 -1.9501494 9.8134708 4280821030
-2.0354784 0.81354856 9.7057018 4281742645
-1.873814 0.81068242 9.7263947 4282992708
-0.13849717 0.74192452 9.6997728 4280690729
0.14066811 0.71978647 9.7522221 4282468682
0.89192849 0.65967351 9.9440536 4280626478
1.052651 0.66631639 9.8446608 4281282866
1.5550685 0.56873953 9.641552 4279966238
2.0853171 -2.0828445 10.174212 4280755494
-0.62431353 -1.9820663 10.071459 4280623399
2.171237 -1.9333143 10.219284 4280624166
-2.0203598 0.79279613 10.045946 4282862670
-1.9080603 0.79210705 10.108825 4283584332
-0.078107618 0.69840127 10.439988 4280427555
0.067345276 0.69626427 10.385311 4280822059
0.8154431 0.65380388 10.459766 4280560945
1.0665777 0.65437776 10.369705 4282006844
1.6858815 0.57628757 10.062532 4279574059
1.6511099 -2.2469621 10.934151 4280755238
-2.0741162 0.72862071 10.841511 4282597943
-1.7604544 0.73276979 10.855706 4282795322
-1.2433553 0.72289413 10.861526 4280887846
-0.76429456 0.7086699 10.853582 4280098589
-0.26382494 0.69206011 10.821353 4280098333
0.20127209 0.66280031 10.932006 4280229920
0.73565125 0.64076072 10.826247 4280626225
1.0256672 0.67278779 10.664549 4281678130
1.8533623 -2.5051429 11.110339 4281085227
1.660067 -2.2803326 11.032736 4280754981
-3.0324085 0.77418488 11.362066 4281348650
-2.5344505 0.740942 11.325956 4281546286
-2.0511234 0.70968574 11.384318 4282071092
-1.7539691 0.71411026 11.41251 4282139717
-1.2527862 0.70566738 11.436383 4281152314
-0.76292211 0.68396795 11.423126 4280230186
-0.24105732 0.65580225 11.397368 4280230444
0.27021801 0.62395239 11.366391 4280625199
0.69282645 0.61900932 11.417718 4281022011
1.0522767 0.60465467 11.303372 4280822056
-3.1901972 0.95090288 11.695447 4281151527
-2.6875143 0.75081277 11.501188 4281611822
-2.1344213 0.66213793 11.877582 4282337080
-1.7787292 0.67055994 11.925499 4281678896
-1.2817259 0.65797758 11.9463 4281020713
-0.91256398 0.64799935 11.944966 4280494116
-0.28664595 0.66983527 11.606704 4280230953
0.1382127 0.65262872 11.573817 4280165163
0.74709165 0.54941648 11.933365 4283324244
1.1005185 0.65153456 11.559393 4280887593
1.8902708 -2.2068567 12.438016 4282729020
1.9801394 -1.9760388 12.462721 4281018155
2.0190783 -1.9765483 12.462458 4280952099
-2.123606 0.63301158 12.334834 4281950815
-1.764623 0.63784677 12.361338 4281548079
-1.2670443 0.62300956 12.382989 4280889639
-0.75384259 0.61328423 12.402145 4280428578
-0.34883383 0.60443342 12.413758 4280559908
0.44656846 0.57028311 12.437754 4280427812
0.56490296 0.54785442 12.404463 4280695361
1.839489 -2.564815 12.914131 4281347633
2.1182499 -2.6997972 12.641746 4283122753
1.8058382 -2.4000986 12.812589 4281283121
2.0175874 -2.1227388 12.592454 4283717195
0.42674598 0.49514928 12.920423 4280960327
-2.1302588 0.595204 12.95777 4281615151
-1.7683755 0.60160464 12.978295 4281153319
-1.2422965 0.58575183 12.970468 4280692514
-0.7288059 0.56813967 12.970507 4280363296
-0.24779631 0.55122703 12.973811 4280428579
0.26860306 0.52945143 12.964138 4280494374
0.62745547 0.54551035 12.766191 4281483592
1.8611549 -2.566921 13.026776 4281413682
0.40745246 0.49625149 13.382398 4280235840
0.57699704 0.49174681 13.313474 4282272329
-2.22033 0.60175014 13.227805 4281356105
-1.7392205 0.59447783 13.192151 4281021479
-1.2573315 0.57931137 13.217489 4280692258
-0.75509143 0.56353599 13.177629 4280297247
-0.26258272 0.54558057 13.12054 4280428579
0.27257079 0.52469254 13.189376 4280363562
0.55368501 0.50508523 13.356831 4281679938
0.41302213 0.48808175 13.762223 4280170052
0.59653574 0.48308629 13.734529 4282863436
-2.3647079 0.61212158 13.545626 4281094484
-1.2824503 0.57137036 13.529605 4280757794
0.36045066 0.50870365 13.638549 4280364339
0.56083411 0.50797373 13.566177 4282138689
0.46934554 0.47919673 14.426831 4282600001
0.52129233 0.45886567 14.398066 4283060806
0.3485696 0.50313926 14.489054 4280299313
0.50978267 0.50174856 14.057898 4281480499
1.606398 -2.276912 14.910488 4281676851
-0.65576696 0.4960877 14.913909 4279967002
-0.46828958 0.49268493 14.921638 4281218094
0.37826157 0.45547071 14.950969 4281415989
0.52198762 0.43294907 14.944214 4281217838
-2.3374619 0.51839888 14.96848 4280493089
-1.7698516 0.52945906 14.948053 4280098588
-1.2398633 0.51906282 14.944557 4279901209
-0.79012924 0.50839227 14.928267 4279900954
-0.46626768 0.50277805 14.897053 4280823336
0.31178889 0.50865996 14.688066 4280231464
-2.5853467 0.49481636 15.386534 4280563259
-2.4838715 0.49855033 15.363774 4280229919
-0.15165319 0.47002119 15.399136 4280427297
0.35566673 0.39819214 15.480141 4282008120
0.51472402 0.43727741 15.477741 4280295455
1.0181684 0.31655926 15.079758 4279702293
-2.5239596 0.51480228 15.479661 4280229922
-2.4317665 0.51926124 15.460395 4280229405
-1.9201187 0.53701043 15.478351 4280032025
-1.2605032 0.52390367 15.02836 4279900953
0.16224463 0.50934106 15.308426 4280032540
0.75420487 -2.1591349 15.9575 4280228893
-2.5498953 0.4942494 15.646384 4280229921
-2.4342833 0.49762979 15.621442 4280032284
-1.8162637 0.49078837 15.640926 4280097305
-0.11941631 0.44597051 15.945061 4280097562
0.22448781 0.42128724 15.943641 4280888876
0.53260851 0.39651415 15.944013 4280163870
-2.5993207 0.51901364 15.855292 4280164642
-2.30317 0.5275647 15.72133 4280032027
-1.8537554 0.52019298 15.6634 4279966490
0.27304256 0.52087426 15.752802 4279836191
-3.6782463 -2.3581157 16.386215 4280162332
0.72540927 -2.2090793 16.314596 4280427042
-2.6224375 0.4722833 16.427935 4280163614
-2.3520062 0.48754951 16.461742 4279899929
-1.962409 0.48482051 16.341652 4279768856
-0.04710345 0.42894056 16.395647 4279966491
0.10082187 0.41243735 16.378643 4280165157
0.52965772 0.40330541 16.154137 4280624677
-2.5974839 0.50593215 16.477211 4279966234
-2.4358497 0.50502956 16.402897 4279965721
-1.9432575 0.50966543 16.063038 4280031770
-3.5530293 -2.5596943 16.867334 4280096282
-3.4144289 -2.5373449 16.908665 4279899419
-3.5877643 -2.3340962 16.877012 4280097052
-3.4779489 -2.4777367 16.771667 4279964953
-2.0327075 -2.4697373 16.982609 4279373074
-1.9269618 -2.4070318 16.915638 4279307537
-1.3654389 -2.4160023 16.980577 4279241746
-0.67593688 -2.3903372 16.959461 4279569683
-0.099343456 -2.3857253 16.999475 4279439638
0.34791741 -2.3592036 16.971605 4279440920
0.92467117 -2.2986777 16.971786 4280294943
1.1025389 -2.2833393 16.942713 4280162843
-2.7211294 0.48940018 16.70783 4280032287
-2.2242134 0.4870154 16.565207 4279834393
-1.9812102 0.48464587 16.539129 4279965978
-0.16633479 0.39998952 16.954802 4280295714
0.10267085 0.37161139 16.91416 4280163615
0.53135538 0.3662416 16.939339 4280097821
-2.7038512 0.5048824 16.765238 4279900443
-2.1726656 0.50322902 16.557491 4279834392
-3.5700812 -2.5182104 17.466227 4280162589
-3.3085504 -2.5135312 17.465996 4280096282
-2.672673 -2.5985129 17.460012 4279569941
-2.1551304 -2.5752296 17.445229 4279504148
-1.6470788 -2.5235057 17.435532 4279504403
-1.3311231 -2.527586 17.4585 4279438354
-0.93665016 -2.5116913 17.451269 4279504149
-0.36917931 -2.5721874 17.244871 4279768860
0.32462871 -2.5302997 17.253956 4279833881
0.61244375 -2.5541553 17.340658 4279768089
1.4009918 -2.5631251 17.423372 4280294428
1.5654341 -2.6600149 17.440821 4280031514
-3.5170345 -2.4001882 17.452917 4280360478
-3.27232 -2.2765875 17.450163 4280360223
-2.5163052 -2.495322 17.079264 4279439125
-2.0839446 -2.4832833 17.083824 4279438354
-1.5412874 -2.4715652 17.282316 4279373074
-1.3338512 -2.4672832 17.358255 4279438611
-0.62646693 -2.441334 17.454689 4279242517
-0.45628199 -2.4288459 17.331108 4279438867
0.36051702 -2.3621831 17.423168 4279899672
0.82421082 -2.2556937 17.458303 4280096794
1.0240921 -2.3422036 17.35873 4279767830
1.5108396 -2.3252542 17.443895 4279899417
0.93977928 -0.52151716 17.488441 4281217330
1.1508929 -0.52234852 17.476957 4281217073
1.5393811 -0.50332618 17.480999 4281414198
0.4912734 -0.01221036 17.471088 4281876286
0.7195999 -0.16612673 17.479462 4281546295
1.0660157 -0.21490568 17.470417 4281414707
1.5117698 -0.30574298 17.371222 4281019695
-2.6730165 0.46412012 17.472595 4279900442
-2.2167702 0.45814759 17.486317 4280031514
-1.842482 0.44166043 17.484655 4280886822
-1.3845837 0.42563623 17.482677 4279374098
-0.76389134 0.42482281 17.491776 4279899416
-0.092223048 0.39637038 17.464867 4280230179
0.11455201 0.32675275 17.460484 4280822569
0.56857973 0.34215036 17.084938 4280163357
1.079056 0.077517405 17.484037 4280295972
1.5118349 0.077437237 17.402508 4280426532
-2.7512872 0.50552821 17.372543 4279833881
-2.4348714 0.50214732 17.46389 4279899417
-3.5574634 -2.5296807 17.578939 4280228638
-3.196049 -2.5413651 17.699007 4280294430
-2.8591857 -2.5266666 17.755299 4280031519
-2.2700768 -2.5431736 17.746624 4280031003
-1.6161704 -2.5089006 17.759216 4279834138
-1.3110768 -2.5164726 17.777988 4279636246
-0.80273247 -2.5078578 17.762737 4279570709
-0.20155193 -2.5100608 17.771126 4279833624
0.24910866 -2.5207577 17.808823 4279899416
0.60289294 -2.5937316 17.882256 4279899416
1.0618812 -2.8220983 17.83884 4280361507
1.5313866 -2.7706583 17.750746 4280426014
-3.5272818 -2.3314524 17.889147 4280228379
-3.2440941 -2.3555744 17.740856 4280162589
-2.7849233 -2.387265 17.805864 4279965467
-2.2145073 -2.3772957 17.775076 4280228895
-1.7342156 -2.3646343 17.794725 4280032030
-1.2379527 -2.3630493 17.780006 4280097823
-0.76181346 -2.3477178 17.798935 4280097567
-0.24200581 -2.3447061 17.781912 4280295201
0.26565033 -2.31985 17.776535 4280360736
0.54478461 -2.2603009 17.699018 4280426271
1.1011984 -2.2450001 17.714745 4280031002
0.48976931 -0.51891685 17.981136 4281018921
0.60714006 -0.54543227 17.937881 4280887337
1.0604453 -0.56699508 17.812693 4280755754
1.5329983 -0.54072237 17.660101 4280887851
0.48480368 -0.31208771 17.969906 4281084715
0.53740996 -0.26608929 17.815958 4281413936
1.0731355 -0.33993509 17.542295 4281348915
1.5396614 -0.488065 17.567852 4281217331
-3.5003707 0.47213221 17.9692 4280163356
-3.0324991 0.46481854 17.930899 4280096794
-2.6993165 0.47743794 17.925959 4279899929
-2.2408407 0.47696134 17.935286 4280228894
-1.7454164 0.45651975 17.917727 4280228893
-1.25445 0.44157329 17.91062 4279439636
-0.82238477 0.42439589 17.892578 4279702807
-0.18134007 0.3912034 17.872784 4280427814
0.06626448 0.34550545 17.94685 4280821799
0.53557831 0.17047133 17.838223 4279702295
1.0551718 0.23478357 17.839884 4279768346
1.5429226 0.27219322 17.814714 4279373586
-3.0961254 0.50615495 17.868795 4279965722
-2.5964241 0.50153172 17.933104 4279637014
-2.4276135 0.5046531 17.891018 4279834136
-1.5943271 0.50745696 17.874626 4279636238
-1.1912569 0.51556545 17.932222 4279636242
-3.412199 -2.5642011 18.326765 4280031262
0.70159936 -2.5997505 18.079283 4279833622
-3.5316372 -2.3918583 18.045502 4280096798
-3.0981195 -2.4083607 18.035696 4279834394
-2.8791008 -2.3856599 18.071302 4279833881
-2.0773454 -2.3828881 18.074968 4279637014
-1.6546298 -2.3726091 18.037167 4279768344
-1.1323849 -2.3536317 18.035381 4279768343
-0.79115534 -2.3376012 18.113491 4279505429
-0.13125895 -2.344173 18.063086 4280228638
0.3164762 -2.3058178 18.075066 4280492579
0.61414224 -2.2943666 18.101465 4280558884
1.2000965 -2.238013 18.135094 4280294687
0.3433162 -1.0126438 18.351421 4280624166
-0.0075746663 -0.54500347 18.000744 4279901981
0.38998061 -0.68628347 18.489344 4279439123
0.50527263 -0.56529593 18.39826 4280821800
0.46435165 -0.25533772 18.476995 4280623908
0.50600356 -0.12958154 18.208719 4280558371
-3.5454884 0.46486881 18.171669 4279835162
-3.0514691 0.47311282 18.258541 4280097051
-2.5584381 0.48532906 18.392908 4279965723
-2.2365177 0.47501785 18.402155 4280689958
-1.7502795 0.45497423 18.401531 4280294944
-1.2489098 0.43675935 18.390953 4279570966
-0.7452988 0.41260055 18.377407 4279768858
-0.24604926 0.38276947 18.352974 4280295458
0.052566364 0.34829202 18.32584 4280360992
0.5118472 0.11210621 18.43478 4279965724
1.0698333 0.32118428 18.106409 4279439123
1.5073884 0.32266909 18.064281 4279374615
-3.1756124 0.50389242 18.330137 4279966234
-2.6585712 0.50442654 18.371092 4279769114
-2.0995979 0.50447154 18.144125 4286743417
-1.330409 0.50272661 18.185518 4279635987
0.83686996 -2.6179848 18.95459 4281148706
0.48265719 -1.0414658 18.893133 4279965722
0.61315149 -1.0378507 18.762203 4280097823
0.41714266 -0.55558753 18.947613 4280821542
0.55075967 -0.75922334 18.588108 4280492063
0.42073172 -0.33023721 18.963621 4280953129
-3.0082135 0.4147144 18.989328 4279965976
-2.8972788 0.4198063 18.871012 4279965466
-2.1867223 0.46873635 18.518629 4281084459
-1.7511245 0.451161 18.533543 4280031260
-1.2140287 0.4320015 18.533573 4279439380
-0.75489891 0.40856984 18.529274 4279702552
-0.14404273 0.35221437 18.927319 4280427558
0.025005031 0.33016172 18.905327 4280690469
0.50909442 0.13997963 18.623938 4279701527
-3.0706625 0.5284518 18.529224 4279899929
0.91423011 -2.7488012 19.31469 4280294945
1.0514364 -2.8106875 19.485935 4280490782
0.54158598 -1.0590283 19.130209 4279636759
0.37087777 -0.57709605 19.437782 4280887592
0.3769978 -0.25892726 19.455437 4280756006
-3.0340195 0.39777383 19.418159 4279900699
-2.9102173 0.4080705 19.37858 4279965466
-0.17710564 0.32917044 19.38253 4280559143
0.039885968 0.30130586 19.350618 4280097820
-0.14996332 0.50049871 19.018673 4279702811
0.25153583 -2.528789 19.613903 4280691499
0.94299024 -2.8034616 19.882612 4280491552
1.139321 -2.8591549 19.624722 4281082916
1.1617748 -2.3947611 19.936916 4281610287
0.48060685 -1.0452691 19.955688 4279439636
0.34318402 -0.59395218 19.941496 4280755749
0.34028381 -0.26325992 19.938047 4280558884
-3.0933182 0.4096235 19.756628 4279900444
-2.9556491 0.4246054 19.656727 4279834136
-0.53347456 0.33302113 19.874657 4279834649
-0.2383564 0.31551418 19.890684 4280427558
0.21338736 0.15973669 19.780865 4280031515
0.78826207 -2.761776 20.446035 4280754979
1.2099305 -2.5528717 20.200846 4281413676
1.2232494 -2.4062345 20.166855 4281546033
0.45456231 -1.0090656 20.134398 4279439382
0.33129588 -0.62153667 20.328434 4280756006
0.30522349 -0.25770622 20.300316 4280097565
-3.1684799 0.39942124 20.229919 4279966237
-2.0193725 0.33887628 20.464024 4280163613
-1.7479624 0.32899684 20.478252 4279637014
-1.2409508 0.30478129 20.468052 4279505428
-0.73904037 0.282915 20.460897 4279768600
-0.32109034 0.25032064 20.447506 4280691242
0.10344448 0.2073555 20.434166 4280032028
0.87656265 -2.8644207 20.832499 4281084970
1.0185884 -2.8871443 20.925459 4280952871
0.31332487 -0.61493653 20.518757 4280492580
0.29629263 -0.23285651 20.567934 4279965723
-3.2301571 0.38422936 20.558765 4279901215
-2.0262401 0.3409014 20.519796 4280294941
-1.7205399 0.32583877 20.561487 4279505685
-1.2652721 0.30490083 20.561502 4279439635
-0.58071327 0.24899024 20.973946 4279835164
-0.32897222 0.18556097 20.976999 4281810742
0.27535838 0.053929713 20.535131 4280228124
0.91256601 -3.0287037 21.076832 4280557855
0.85659766 -2.904752 21.055624 4282072121
1.0458846 -2.9238741 21.055759 4281479727
-2.7323291 0.26228535 21.480278 4282466871
-2.2470326 0.26038578 21.489714 4283847492
-1.7133914 0.24585186 21.479622 4279571478
-1.138644 0.21807827 21.487213 4279439892
-0.87557936 0.20090859 21.495031 4279572247
-0.39757395 0.17345509 21.466127 4281876538
0.052399185 0.16480991 21.098026 4279966748
-3.017508 0.26535189 21.642548 4280426271
-2.8119767 0.27057743 21.984543 4284176975
-2.2153618 0.2689032 21.981628 4280755747
-1.6989282 0.25533465 21.964361 4279637270
-1.1820208 0.21087097 21.990072 4279374356
-0.55344301 0.18962452 21.970251 4280691757
-0.46128711 0.18743999 21.958422 4281809976
0.026663907 0.1598978 21.955158 4280493090
-3.0686007 0.23764896 22.47818 4280887333
-2.8546798 0.2369519 22.488867 4284900955
-2.2394431 0.22916643 22.476301 4281546292
-1.8144882 0.21369594 22.489571 4280757037
-1.2528659 0.19286591 22.47801 4279703319
-0.76802099 0.18154913 22.48324 4279901986
-0.39092061 0.15070267 22.450281 4280098333
0.031319477 0.15132576 22.015579 4280229662
-4.1098232 -2.7010925 22.971897 4280293405
-1.1721082 -2.6487639 22.92477 4279570709
-0.11442146 -2.6764338 22.983753 4280559142
0.88895231 -2.9316301 22.943268 4283851597
-0.11334224 -0.51263744 22.991203 4280757549
0.066938639 -0.53290135 22.991312 4286284925
0.5064559 -0.57847691 22.994389 4282929482
-0.15896028 -0.34723872 22.996729 4281085484
0.0034566205 -0.22561803 22.984118 4280163360
0.52989459 -0.33300465 22.941656 4281217584
-3.5331123 0.23206796 22.957619 4280689441
-3.034632 0.22466159 22.907751 4283123518
-2.7658901 0.2298373 22.950686 4286875251
-2.0542896 0.2125584 22.98638 4279834136
-1.7802601 0.18302667 22.99588 4279703320
-1.1372384 0.15846963 22.96913 4279702807
-0.65008998 0.14758119 22.981791 4280757806
-0.41475615 0.11847854 22.968969 4280559395
0.042612292 0.12653153 22.828148 4279900697
-4.1394806 -3.0087354 23.46846 4280162332
-3.8576379 -3.0176156 23.430302 4279768604
-0.54965824 -3.0208859 23.406164 4280228636
0.74545211 -3.0122285 23.464163 4282138935
1.0336589 -3.0396607 23.209 4283981644
-4.1934347 -2.76615 23.297651 4280228381
-3.9396973 -2.9618988 23.433128 4280228127
-3.0669227 -2.8888488 23.438368 4280491295
-2.51232 -2.6680241 23.418428 4280294946
-2.2336638 -2.5397909 23.346144 4280425760
-1.9633651 -2.5458176 23.354378 4279766804
-1.2606858 -2.8503063 23.449018 4279570709
-0.91898704 -2.8258357 23.4233 4279636246
-0.25338107 -2.7904124 23.376814 4280229407
0.27730867 -2.7825553 23.406792 4280360736
0.65289038 -2.7448153 23.332985 4280953384
1.0507411 -2.8920162 23.280724 4283191877
-2.1956871 -2.4409559 23.347233 4280030488
-1.9761144 -2.4756839 23.348333 4279766803
1.0228008 -2.4886291 23.383934 4280952357
-0.36320141 -0.51025796 23.492811 4281085227
0.016014371 -0.70744109 23.484791 4282666055
0.51724076 -0.72046399 23.457684 4282799181
-0.39439118 -0.19828275 23.480452 4280294943
0.012390015 -0.4177168 23.060711 4280756776
0.51691222 -0.44415122 23.038551 4283915610
-3.616478 0.22583367 23.244608 4280953129
-3.0560987 0.23655425 23.085251 4284243024
-2.666187 0.22336771 23.259104 4282926911
-2.0539396 0.18345144 23.485569 4279703319
-1.5678233 0.16115418 23.49325 4280822571
-1.2726507 0.14533536 23.474134 4279703319
-0.67188138 0.12310288 23.484232 4280954671
-0.42009506 0.03094545 23.480175 4279965464
0.13067307 0.091063201 23.152681 4279440148
-4.0885658 -3.0362821 23.598013 4280031261
-2.2181301 -3.0322585 23.586926 4279701014
-0.58250296 -3.0292811 23.561703 4279899673
-0.46740726 -3.0622823 23.533545 4280098846
0.73146242 -3.0664501 23.593113 4281874739
-4.5218525 -2.6097515 23.599361 4280491553
-4.2870631 -2.8042948 23.589113 4280359967
-3.9311848 -2.9388347 23.501919 4280228127
-3.04812 -2.9679897 23.539795 4279899930
-2.5187278 -2.8063998 23.5301 4280097568
-2.3477879 -2.5516953 23.736414 4280162845
-1.9485224 -2.748673 23.506433 4279899158
-1.2861449 -2.8590915 23.547409 4279570708
-0.86395729 -2.8271239 23.542061 4279505173
-0.26424566 -2.8366218 23.549103 4280097566
0.10614246 -2.8679211 23.93273 4279834137
0.63242441 -2.7527311 23.55798 4280426529
-2.1941526 -2.4115603 23.50803 4280096537
-1.9910415 -2.4787865 23.505711 4279635471
-0.42532012 -0.56412572 23.985426 4281742130
0.02255255 -0.78649616 23.858982 4281283635
0.52247369 -0.75037611 23.629299 4282337347
-0.52084905 -0.12448577 23.857224 4279308308
-0.42617303 -0.41313091 23.992668 4279833624
-3.6611459 0.22698735 23.528311 4280953641
-2.7439051 0.33570525 23.535259 4282268470
-2.0880706 0.1411261 23.982409 4279702807
-1.6564549 0.13255616 23.982265 4280296227
-1.0851557 0.10855462 23.992998 4279900698
-0.66535753 0.074973725 23.991974 4279966235
-0.46374667 0.053327531 23.874866 4279768857
0.36306101 -3.0411844 24.470573 4279900441
0.82307667 -3.0182657 24.471647 4281018405
-2.3756783 -2.6955514 24.139317 4280164131
0.29471397 -2.9763131 24.339037 4280229150
0.79572791 -2.9369855 24.394772 4280491808
-0.35119385 -1.0507922 24.466917 4280097309
-0.51962817 -0.58379066 24.474054 4281348656
-0.48939151 -0.68954515 24.459587 4282005813
0.20819663 -0.75308132 24.114096 4282270530
0.87957317 -0.83667469 24.177916 4280427560
-0.51436919 -0.41289985 24.490602 4281019178
-0.49675772 -0.35154951 24.477175 4280953642
-2.1569846 0.15145271 24.20026 4279703319
-1.7403483 0.13410375 24.220638 4279966748
-1.0484399 0.10036729 24.422348 4280032798
-0.75874245 0.062665112 24.486565 4280295713
-0.40903959 0.068010136 24.06007 4279637015
-4.5256171 -3.0727656 24.947641 4280755235
-4.2690773 -3.0163116 24.974203 4280952358
0.46282631 -3.1240621 24.744129 4280689442
0.55666077 -3.0116899 24.967308 4281347114
-4.5401301 -2.9972057 24.879646 4280426781
-4.0303931 -2.7377346 24.968714 4281412907
-3.9698186 -2.7179151 24.979588 4281150250
0.31940395 -2.8265636 24.987408 4280689442
0.51902372 -2.8748951 24.945559 4280557600
-0.52454466 -1.0552452 24.890047 4279505686
-0.42649686 -1.0370536 24.992317 4279966235
0.013193794 -1.2271137 24.670719 4280031772
0.77080148 -1.1494567 24.689739 4279965469
-0.55344892 -0.61287552 24.993395 4282006587
-0.47542825 -0.89254951 24.986568 4279833881
-0.55865109 -0.37392464 24.950245 4281611572
-0.4974851 -0.19868486 24.679497 4280229405
-1.880842 0.12852898 24.505333 4279375123
-1.034098 0.042969525 24.978146 4279902760
-0.85029775 0.042634387 24.97963 4280559400
-0.24628377 0.039097033 24.771416 4279373075
-4.5211735 -3.0202706 25.095146 4281150507
-4.0247631 -3.0168839 25.383144 4281478959
-3.6386049 -3.00982 25.463739 4281216043
-3.2168138 -3.00353 25.446901 4280756262
-2.7821534 -3.0035255 25.474581 4280624677
-2.1764157 -3.0104313 25.467062 4280098336
-1.6411781 -3.0026667 25.47691 4280229152
-1.2928637 -3.0064921 25.468962 4280624422
-0.58694005 -3.0033574 25.449265 4280952617
-0.23681782 -3.0165029 25.483166 4280690727
0.055970062 -3.0167031 25.477306 4280755750
0.51956218 -3.025382 25.15062 4280492064
-4.5150003 -2.7725787 25.452271 4282730814
-4.0457869 -2.7288349 25.468193 4282400051
-3.9451916 -2.7656169 25.401495 4282335028
-3.1897483 -2.8138189 25.456371 4280163616
-2.7538688 -2.8020704 25.479486 4279966238
-2.2417893 -2.7862754 25.471579 4279637019
-1.6317647 -2.7665284 25.479427 4279768605
-1.2010282 -2.7547653 25.494959 4279768860
-0.69705528 -2.7360258 25.489807 4280032287
-0.14340411 -2.5820282 25.430094 4281083171
0.012480523 -2.6019766 25.491858 4280492835
0.53221649 -2.6052239 25.446182 4280098079
-0.50570941 -1.0384055 25.113565 4279899672
-0.39604264 -1.2427257 25.453772 4280229153
-0.62412995 -0.63829792 25.481287 4282862153
-0.47806853 -0.92076695 25.070934 4279899674
-0.62256664 -0.37932813 25.484991 4282006844
-0.4508082 -0.028660323 25.379898 4279834651
-1.1615399 0.04464636 25.387623 4279835683
-0.84199089 0.032119934 25.380203 4280492838
-0.48037291 0.002922368 25.494181 4279899932
-4.197392 -3.0510187 25.509766 4281413678
-3.5560188 -3.0169182 25.508749 4280690470
-3.4249411 -3.0877972 25.504248 4281018924
-2.5189884 -3.0936468 25.506506 4280032029
-2.120369 -3.0537379 25.506874 4280097823
-1.6792356 -3.0393717 25.512396 4280295201
-1.3250206 -3.0241385 25.511877 4280821288
-0.86552775 -3.1260738 25.507862 4280492836
-0.021022778 -3.0816092 25.511383 4280361762
0.052696943 -3.0719447 25.511515 4280558115
-4.5214286 -2.7875919 25.957619 4282795323
-4.0411158 -2.7576666 25.827192 4287007342
-3.8088143 -2.8149552 25.863182 4281807661
-3.2208829 -2.8513062 25.942142 4280359708
-2.7343917 -2.8439336 25.944538 4279964695
-2.2510192 -2.8373575 25.947897 4279701523
-1.7331876 -2.8340986 25.954723 4279701522
-1.0887094 -2.7846999 25.978222 4279767061
-0.70768541 -2.765826 25.98167 4280030488
-0.2501893 -2.6938312 25.913015 4280162588
0.016624218 -2.6358743 25.95368 4280031770
0.53412122 -2.6714931 25.94783 4280358681
-0.56439102 -1.0257479 25.973831 4280755496
-0.48916736 -1.1499294 25.869141 4280558374
-0.68830264 -0.66981536 25.968685 4282598724
-0.48783633 -0.94475561 25.845726 4279833884
-1.0456808 -0.0019066847 25.94352 4280492837
-0.70435381 -0.18102169 25.950056 4280097311
-0.47345665 -0.028880589 25.89028 4279636760
-1.1415218 0.011868225 25.98818 4280296748
-0.91100359 0.0083087999 25.98173 4280822057
-0.48048526 0.008198671 25.883615 4279900187
-4.5446186 -2.8599617 26.239885 4284243023
-4.0846181 -2.8440518 26.061838 4291152544
-3.5474279 -2.8862231 26.23065 4281479730
-3.2393048 -2.8804977 26.232887 4280887338
-2.7256212 -2.8573351 26.21171 4280097823
-2.2394872 -2.8438768 26.1989 4279702554
-1.7472298 -2.8319023 26.201054 4279636505
-1.2411408 -2.8069317 26.15107 4279636505
-0.74158329 -2.7896173 26.147369 4279768090
-0.29606804 -2.752831 26.139088 4279965468
0.035608448 -2.7609808 26.427252 4280295200
0.52492684 -2.7283516 26.230209 4280031514
0.14319798 -2.3253729 26.18586 4280360735
-0.57267296 -1.0241857 26.151436 4282730311
-0.48555216 -1.0816993 26.112589 4280427295
-0.70995623 -0.73267215 26.326046 4282730311
-0.38655484 -0.94547826 26.201599 4279636243
-1.585902 -0.005597203 26.232752 4279637784
-1.2072268 -0.016561089 26.282478 4280362283
-0.76882714 -0.24238394 26.270374 4280360995
-0.42454618 -0.0057914779 26.070225 4279176980
-2.0474703 0.019639699 26.203634 4279704346
-1.7834811 0.011327823 26.215343 4279769369
-1.357621 0.0043374309 26.217144 4279835679
-0.87929744 0.0066029187 26.166344 4280624680
-0.3561925 0.022203337 26.156265 4279373588
-2.8524325 -3.0449154 26.903809 4280493095
-2.7750869 -2.913094 26.741077 4280229409
-0.014625154 -2.8465631 26.551971 4279966238
0.091336392 -2.7490811 26.739643 4280294689
0.5237112 -2.6730485 26.94451 4279899933
-0.72533959 -0.70016515 26.580721 4283388754
-1.2191563 -0.032342192 26.739498 4280428591
-0.76159233 -0.13705835 26.792492 4279834653
-0.46771672 -0.034375105 26.941359 4280032031
-1.2927803 0.0099012563 26.627266 4279704611
-0.75058126 0.0032766205 26.884094 4279703322
-4.5413094 -3.384939 27.422714 4283124806
-4.4307261 -3.2850175 27.44265 4283651400
-2.8831859 -3.0195405 27.051746 4281217070
-1.2853248 -3.2103629 27.44241 4280492324
-2.819037 -2.8789048 27.120569 4280097567
0.2408312 -2.7421725 27.135532 4279833884
0.51645178 -2.6921844 27.25478 4279768091
-1.2604729 -0.045012895 27.232262 4280625971
-0.51941985 -0.032584161 27.033615 4279571481
-1.3410287 0.0046470584 27.041908 4279836196
-0.9003408 0.025931887 27.021049 4279769629
-4.5245023 -3.3396337 27.888983 4283518793
-4.4115334 -3.3553219 27.896288 4283584842
-1.5136501 -3.3440695 27.961777 4281019437
-1.3957059 -3.246309 27.934048 4280361253
0.43351418 -3.3904052 27.930027 4280163358
0.3639943 -2.716388 27.94417 4279833626
-1.2719666 -0.019760836 27.543089 4279768859
-1.315933 0.0021199915 27.54376 4279575604
-4.9023051 -3.2319005 28.428894 4285822045
-4.4734769 -3.3288679 28.239412 4283715910
-2.9928503 -3.0544786 28.344009 4279966496
-1.5274373 -3.2767303 28.33604 4280427045
-1.4343747 -3.2636549 28.336958 4280295459
0.42876303 -3.0991597 28.461786 4280294943
-2.9652414 -2.984551 28.244873 4280887596
-0.06081076 -2.6382582 28.387949 4279965469
0.1396188 -2.6602893 28.386007 4279833884
0.51980239 -2.7844045 28.240799 4280294432
-0.052399267 -2.4500189 28.360331 4279965727
0.093874417 -2.4464238 28.393213 4279899933
-3.0243249 -3.0559063 28.503796 4280099361
-2.9971254 -3.1225061 28.503132 4279966236
-1.5213909 -3.253459 28.527679 4280755492
0.43782568 -3.1470652 28.565151 4280360737
-0.085307986 -2.7002738 28.563421 4279900190
0.2664468 -2.7979543 28.55644 4279899420
-0.020353438 -2.451371 28.568933 4279768859
0.21808875 -2.4832377 28.502691 4279899676
